-3.959456451152113310e+00,7.664740542455942496e+00,8.145975754705356842e-01
-3.984007313019704899e+00,7.659733751996383511e+00,8.152446818291899655e-01
-4.007665186262747703e+00,7.652938822086979620e+00,8.157094436911046520e-01
-4.181224780967122356e+00,7.930398460054304266e+00,8.465244794945978590e-01
-4.199317553833167516e+00,7.911086553996000248e+00,8.457115087763389383e-01
-4.314188115890075892e+00,8.072972778855133313e+00,8.643020154034241065e-01
-4.104058250056193735e+00,7.628441311624127863e+00,8.179337599604897813e-01
-4.533025908065119403e+00,8.369684718232436538e+00,8.987648457126166113e-01
-4.644056556891281495e+00,8.517802269327777509e+00,9.160592548804924462e-01
-4.577800736991273212e+00,8.340776463793305950e+00,8.983920954543864745e-01
-4.200045443706392767e+00,7.602096057063106649e+00,8.200883214939510557e-01
-4.777296305794801690e+00,8.590162312398094357e+00,9.281130930484191577e-01
-4.238551907702952981e+00,7.571578477119117245e+00,8.193371494424011026e-01
-4.260118309369051559e+00,7.560492012530089845e+00,8.194216128931259835e-01
-4.690868014591844215e+00,8.270860211304439602e+00,8.978290135635119684e-01
-4.289012785702089658e+00,7.513344735702559340e+00,8.168952039347578964e-01
-4.317937340251353895e+00,7.515192479800728798e+00,8.184039260887342460e-01
-4.338968560747239245e+00,7.503211945486780721e+00,8.184155653311038225e-01
-4.197335945744875119e+00,7.211745215162350675e+00,7.878991483940170903e-01
-4.766903211549055719e+00,8.138001450181095109e+00,8.905455596764275672e-01
-4.797792572564288704e+00,8.138537892016048048e+00,8.920669342382501199e-01
-4.828998980076941727e+00,8.139431961740969612e+00,8.936395586387544387e-01
-4.860491904043357181e+00,8.140624054707531698e+00,8.952571578189943979e-01
-4.456346707460046908e+00,7.416606391466045167e+00,8.169994104993137940e-01
-4.898982130683875447e+00,8.101940637942593781e+00,8.939980826251113788e-01
-5.056074068224653217e+00,8.309245604827738774e+00,9.184272692601386234e-01
-5.561547112487969180e+00,9.082735126181551877e+00,1.005634368591671546e+00
-4.958910053180029642e+00,8.047998431205655834e+00,8.925987653116714826e-01
-4.978550898002604086e+00,8.029580594872271604e+00,8.920945239131181648e-01
-5.539008682012173779e+00,8.878052763822839921e+00,9.880752833164445637e-01
-5.088187992857665876e+00,8.104980475007327101e+00,9.036147129582884352e-01
-5.290094196166994500e+00,8.374572299395341091e+00,9.353145390690099648e-01
-5.355185643873003443e+00,8.425415064419214062e+00,9.426594387473973269e-01
-5.372610917130078434e+00,8.400917553956361417e+00,9.415935167513568294e-01
-5.390958672659340145e+00,8.377969764350043036e+00,9.407051441808651493e-01
-5.125418342500698721e+00,7.916629786290512172e+00,8.905080476654403387e-01
-5.160188196794675441e+00,7.921755786046730030e+00,8.927020886697241142e-01
-5.195113458443999299e+00,7.926881785802946112e+00,8.949111005065295554e-01
-5.229920360112952693e+00,7.931590553020866352e+00,8.970880140953344517e-01
-5.265158816979828238e+00,7.936716552777083322e+00,8.993272455005305588e-01
-5.448663009024734549e+00,8.163750658258836168e+00,9.267734895697290476e-01
-5.461225815542877449e+00,8.133292682963174869e+00,9.250435025189366334e-01
-5.285187666430367415e+00,7.823825348843654659e+00,8.915212562219776427e-01
-5.551279293129520731e+00,8.168459425476754632e+00,9.325549739137789507e-01
-5.444504984037408235e+00,7.963419435228074938e+00,9.108787273843529375e-01
-5.480725953223635649e+00,7.968545434984291909e+00,9.132121359736334876e-01
-5.473976465601210428e+00,7.911324972589310889e+00,9.084028465060074442e-01
-5.529610580901443306e+00,7.944226738466427129e+00,9.139502209434201552e-01
-5.462692363493730774e+00,7.801533210368943649e+00,8.992854140460967427e-01
-5.492830417249177088e+00,7.798135745414242592e+00,9.006583974446853436e-01
-5.448948133535186145e+00,7.690132122643715817e+00,8.899383128645521612e-01
-5.614669194452741152e+00,7.877290718393964220e+00,9.134080913423048287e-01
-5.822056547648327474e+00,8.120179660330993698e+00,9.434537263705952137e-01
-5.840939525018971068e+00,8.098662382284546268e+00,9.428451544868693412e-01
-5.859908025309851887e+00,8.077323918183084928e+00,9.422623532315714812e-01
-5.701847533924017775e+00,7.813454140034564510e+00,9.133344489393867560e-01
-5.721266505376539691e+00,7.794261443272915812e+00,9.129549785959490960e-01
-5.744882664056356170e+00,7.780790792750762463e+00,9.132526956398220319e-01
-5.766086372181118413e+00,7.764041886570566042e+00,9.131732050556212732e-01
-5.789866930694586244e+00,7.750750049993399671e+00,9.135079722697548865e-01
-5.960298542448952297e+00,7.932603832042446790e+00,9.368994245401440768e-01
-6.136969259250384390e+00,8.120418078924304339e+00,9.611020235988433358e-01
-5.854655956234748437e+00,7.702053052309336678e+00,9.135174012740456817e-01
-5.888071779927489757e+00,7.701278191881073099e+00,9.153721405727743843e-01
-6.009447086714756026e+00,7.814705837649453812e+00,9.308451501651626714e-01
-6.021429591292182693e+00,7.785201536727043070e+00,9.293300518881266736e-01
-5.951784681706226543e+00,7.650912264043823185e+00,9.152802096722124636e-01
-5.974402120353299317e+00,7.635891892665140901e+00,9.154756270350663527e-01
-5.993422910020965944e+00,7.616281963365195473e+00,9.151276006695088228e-01
-6.016097315535952283e+00,7.601321196634840405e+00,9.153450418998286819e-01
-6.035846798547186864e+00,7.582664941708143758e+00,9.151246051025601069e-01
-6.070038457509618013e+00,7.582068895224862715e+00,9.170948244121515103e-01
-6.014203189259005100e+00,7.469475714533074573e+00,9.055039369657500448e-01
-6.079070312254538422e+00,7.507026642979778508e+00,9.121105309920042314e-01
-6.049151542722664310e+00,7.427573646758415471e+00,9.045058426610420588e-01
-6.062004300322234585e+00,7.401049578252409056e+00,9.033337853878483648e-01
-6.122099280107913266e+00,7.431984390734696078e+00,9.091926534293505169e-01
-6.596394407372380364e+00,7.962346551558169949e+00,9.763242547796775472e-01
-6.357813775219445240e+00,7.630885102205580139e+00,9.378545769433412893e-01
-6.398594682288984536e+00,7.636368729851765735e+00,9.407209176098461079e-01
-6.440300764051661631e+00,7.642686822574545680e+00,9.437110956567598130e-01
-6.472793097236126947e+00,7.637858846059968343e+00,9.453431996146359761e-01
-6.499773831935918622e+00,7.626414753580972317e+00,9.461696092592097873e-01
-6.527125756782239385e+00,7.615328288991944916e+00,9.470518330998994871e-01
-6.554598238511827546e+00,7.604301429051243844e+00,9.479531236338885059e-01
-6.582141560304147987e+00,7.593274569110546324e+00,9.488661737354247006e-01
-6.609548978076341896e+00,7.582009290576534610e+00,9.497612068619059045e-01
-6.876557008916694969e+00,7.843971719978553914e+00,9.849775864508908407e-01
-6.890010348850164945e+00,7.815182674836078647e+00,9.837747386667367033e-01
-6.692781121509012721e+00,7.548869106106109506e+00,9.526001612466054036e-01
-7.812732192173025503e+00,8.762658164659629989e+00,1.108518377816256839e+00
-7.847892553904678437e+00,8.752763793037162898e+00,1.110034781104721091e+00
-7.274903267684683428e+00,8.068264011637211297e+00,1.025798216118869455e+00
-7.497017908254386853e+00,8.268058792833018700e+00,1.053857753761520577e+00
-7.633657618198282258e+00,8.371651671627265756e+00,1.069774793345335873e+00
-7.631218708902737013e+00,8.322179813514939184e+00,1.066172018122603982e+00
-7.353619918850459847e+00,7.974625109113758548e+00,1.024272869918431139e+00
-7.941238812444452400e+00,8.563757453188745927e+00,1.102785958328057925e+00
-7.425175027085487933e+00,7.962525365503153374e+00,1.028029251601151994e+00
-7.494243114130475725e+00,7.991731643183924483e+00,1.034497967356642123e+00
-7.495151412772428579e+00,7.948101040607752132e+00,1.031555502498478383e+00
-7.439297014608901470e+00,7.844865789703476366e+00,1.020849235984041758e+00
-8.099947307625667392e+00,8.493900805348205907e+00,1.108247031516475856e+00
-7.731299652576526960e+00,8.062124732859418330e+00,1.054723623368313934e+00
-7.569662698418875735e+00,7.849574556921396606e+00,1.029678272666701977e+00
-7.676125706137072235e+00,7.915616507268935287e+00,1.041149227704305513e+00
-7.733839753213882062e+00,7.930696483295947452e+00,1.045969311386413247e+00
-7.738237201887094407e+00,7.890999787509428209e+00,1.043579717898735382e+00
-7.771237785525817898e+00,7.880509369403680964e+00,1.045058294454453973e+00
-7.740880542272747356e+00,7.806003558993552360e+00,1.038040457730278865e+00
-7.819779647444903503e+00,7.841647138693758734e+00,1.045680134169073350e+00
8.986771642373300395e+00,8.986771642373302171e+00,9.030040003505642732e-01
8.783973987674336570e+00,8.833170463631777380e+00,8.851017125981927025e-01
8.808610291548824023e+00,8.907557064745251552e+00,8.900871270187205031e-01
8.824490599856062545e+00,8.973599015092791120e+00,8.942204589991813446e-01
8.746131142994888918e+00,8.943737086280410864e+00,8.888074057034403008e-01
8.908737331038057761e+00,9.161055634084680932e+00,9.079281560997094491e-01
9.200613891528478305e+00,9.514213175428698932e+00,9.403786370933659988e-01
8.992627912557281888e+00,9.351254066899659989e+00,9.217861952777604007e-01
8.610592999362653543e+00,9.004176199685108628e+00,8.851998129490065148e-01
9.004414279083846395e+00,9.468794433402683453e+00,9.284007569124738124e-01
8.915076249422957844e+00,9.427428807462979066e+00,9.219003455390651913e-01
9.008996854511826413e+00,9.580195521127912173e+00,9.343754580277023880e-01
8.808113764919957234e+00,9.419143761345372567e+00,9.162651980132543450e-01
8.914520722000688124e+00,9.586454009202363125e+00,9.301153738853722430e-01
8.872171122807621657e+00,9.594500636726657206e+00,9.284886197744860459e-01
7.386030703985832169e+00,8.307397860729569317e+00,7.898070516324777746e-01
7.359351792734665665e+00,8.324087162261436745e+00,7.894368084140466202e-01
6.918692286658251867e+00,7.869840137352951182e+00,7.445218600317432545e-01
7.236285664688534069e+00,8.277595536565515388e+00,7.811825610854274959e-01
7.145536315101334246e+00,8.266509071976489764e+00,7.763578871794598601e-01
7.196640100930103756e+00,8.420229460014668987e+00,7.870075589370514324e-01
7.072667247032022431e+00,8.322120208866607527e+00,7.759886049355074755e-01
6.994405394587761116e+00,8.276761071488921928e+00,7.699348764472202511e-01
6.999956287376180697e+00,8.330405254984215802e+00,7.731036506011471632e-01
6.748702601794072997e+00,8.077085499589772510e+00,7.478423806568449406e-01
6.709152676797225823e+00,8.075476174084915471e+00,7.459557789309736453e-01
6.600466011542242661e+00,7.989943503734081354e+00,7.363493792477135980e-01
6.588423726618898968e+00,8.020878316216368376e+00,7.375018536472487396e-01
6.645976370914409515e+00,8.137166985104501649e+00,7.464849572676511835e-01
6.687952411747716042e+00,8.235395445549217541e+00,7.537799469599210100e-01
6.661521398598308608e+00,8.249819770444618783e+00,7.533945816358054159e-01
6.527742553715803808e+00,8.130491264491753967e+00,7.408295959537412045e-01
6.516084895473131411e+00,8.162558565292274082e+00,7.420905845069007967e-01
6.498670525211691640e+00,8.187532912941749785e+00,7.427083208783785695e-01
6.486274234824627172e+00,8.218944562610658977e+00,7.439117558886314541e-01
6.524595990582636063e+00,8.315146465012221100e+00,7.509670987117619267e-01
6.456702649722637410e+00,8.276105420357312781e+00,7.458098739358857143e-01
6.440364518765483659e+00,8.302867907456631613e+00,7.465979609221754520e-01
6.428222899857996886e+00,8.335173626850462369e+00,7.478858254242238823e-01
6.411154587394221060e+00,8.361220858169845727e+00,7.486136267564806879e-01
6.349483374848474249e+00,8.328855534127683313e+00,7.441253872739206354e-01
6.253468398482362467e+00,8.250594630872884139e+00,7.355702512708738317e-01
6.160810437390817462e+00,8.175671587924455253e+00,7.273539329369914652e-01
6.341354130888847251e+00,8.464336899777466172e+00,7.514568563520420685e-01
6.321264458235073214e+00,8.486807852197163271e+00,7.518817165582724060e-01
6.532677355343711412e+00,8.821964789746093771e+00,7.799554278370181004e-01
6.283021638296133915e+00,8.534551175507974818e+00,7.529908611138472763e-01
6.256904220566386954e+00,8.548975500403377836e+00,7.527189797572847452e-01
6.231593588064139766e+00,8.564472708968683179e+00,7.525483381944590988e-01
6.912520786983333387e+00,9.556294057148344123e+00,8.379988696129648806e-01
6.182263459919874471e+00,8.597195660900812442e+00,7.523779410558785186e-01
6.191506295682115635e+00,8.660972634611884047e+00,7.564432692990606943e-01
6.171806968907648461e+00,8.684576075349813351e+00,7.569965344682406672e-01
6.303603694646471745e+00,8.922696645420590045e+00,7.762150581292344143e-01
6.082434339000234225e+00,8.660853425315227838e+00,7.519558966763092434e-01
6.056751929171648285e+00,8.675694982748924033e+00,7.517730582890451707e-01
6.031128097497125751e+00,8.690596144830951886e+00,7.516019373910809431e-01
6.005561445712065627e+00,8.705556911561304290e+00,7.514424732222333425e-01
5.980050586840716775e+00,8.720577282939988351e+00,7.512946059793369491e-01
5.955325467980943088e+00,8.736730142636902841e+00,7.512505315051313248e-01
5.929917698430233308e+00,8.751869723312243110e+00,7.511255075571977580e-01
6.026155782938063865e+00,8.947611388421737644e+00,7.664776873556383707e-01
5.991659425749355172e+00,8.950233992948174233e+00,7.652660602394543155e-01
5.838769394507170141e+00,8.774757908270235163e+00,7.488654096691844675e-01
5.798790584469472265e+00,8.767664955119190751e+00,7.468751737823856596e-01
5.776160754468931735e+00,8.786678837935857800e+00,7.471179140746755376e-01
5.745563122094969444e+00,8.793533372493588018e+00,7.463335799074254373e-01
5.714496821965678208e+00,8.799553441974726553e+00,7.454872173585449513e-01
5.683509433257643906e+00,8.805573511455865088e+00,7.446497219557177694e-01
5.652599986510257857e+00,8.811593580937003622e+00,7.438210366708597476e-01
5.620779479904801867e+00,8.816063929561611445e+00,7.428705206320019849e-01
5.686866056513527390e+00,8.974910317356007639e+00,7.549143301830094632e-01
6.039464660227724657e+00,9.590507125288674217e+00,8.052727979304334927e-01
5.836427846041678968e+00,9.325743277415231347e+00,7.816701845423684736e-01
5.874095363410886783e+00,9.444475736884816897e+00,7.902441579200215616e-01
5.900323138832656689e+00,9.545982452987580302e+00,7.973557214900314216e-01
5.878958400308425425e+00,9.571076009933712214e+00,7.980773281397630647e-01
5.857454154911099664e+00,9.596050357583187917e+00,7.987927532311078771e-01
5.832159909761378991e+00,9.614885426454868877e+00,7.990017849239049452e-01
5.811121560230363414e+00,9.640813448477594250e+00,7.998047634395332173e-01
5.750809750604710224e+00,9.601295566636061096e+00,7.951909606271664321e-01
5.715574915763643737e+00,9.603202915382558658e+00,7.940239293345617844e-01
5.680375875034551214e+00,9.604991054832403563e+00,7.928571123314885893e-01
4.308148615522557456e+00,8.484483270912365427e+00,6.760939441746116607e-01
4.449228625274350257e+00,8.823276092009312066e+00,7.020981602015314849e-01
4.226055253383072419e+00,8.498430758621141834e+00,6.743604213469776010e-01
4.198379288443494950e+00,8.502245456114140509e+00,6.737301726921779421e-01
4.089510490974904933e+00,8.340359231255009220e+00,6.599945567745045816e-01
4.087996163424801210e+00,8.396506809980081698e+00,6.635317074363347167e-01
4.095479711897967334e+00,8.471906690115135419e+00,6.685837685098411365e-01
4.057492059330798817e+00,8.453488853781752965e+00,6.662334845965681707e-01
4.031837520519235163e+00,8.460522202284467497e+00,6.658978541402321705e-01
4.020086562291862897e+00,8.496881037764609346e+00,6.678733488409096530e-01
3.981734638984542052e+00,8.476973085223024285e+00,6.654319580363157183e-01
3.917050867586910456e+00,8.400142693528099613e+00,6.585396404567240847e-01
3.897000277475606733e+00,8.418441320564825858e+00,6.591184665144863564e-01
3.876954171779213532e+00,8.436859156898210088e+00,6.597102527619616019e-01
3.881788601002247319e+00,8.509934455748464188e+00,6.645740752118991512e-01
3.839622332462075516e+00,8.480132131584413813e+00,6.614067717268705682e-01
3.792130232381739408e+00,8.437872435919787861e+00,6.572822310371472243e-01
3.804575673091246557e+00,8.529186757158443655e+00,6.635651199643162190e-01
3.885802735012579223e+00,8.777082489555031231e+00,6.820043666246276004e-01
3.745952780406744509e+00,8.525431664313771307e+00,6.616349729779829048e-01
3.810190006507591765e+00,8.737803026306810494e+00,6.772881338778268256e-01
3.695809411339407102e+00,8.540511640340783472e+00,6.611930455966568143e-01
3.676076779732803779e+00,8.560419592882372086e+00,6.619369628235103331e-01
3.650133817936151104e+00,8.565903220528557682e+00,6.615702201699374951e-01
3.917427951620521487e+00,9.264827326823908749e+00,7.147025299030427270e-01
3.730225055064740669e+00,8.891225391103350972e+00,6.850760850195187768e-01
3.617397157174001343e+00,8.690238516940981484e+00,6.688089320566517060e-01
3.525596018292227907e+00,8.536816152144441006e+00,6.562411365964194720e-01
3.503559513125604319e+00,8.551061663094859711e+00,6.565815559200391949e-01
3.542909801571182182e+00,8.716404957557021049e+00,6.685149337514650902e-01
3.413302704057416204e+00,8.465230969502389513e+00,6.485172707080939514e-01
3.439228939389216588e+00,8.598685777109015049e+00,6.580028432859047482e-01
3.417129146883043145e+00,8.613110102004414514e+00,6.583738551440816433e-01
3.428209885082974751e+00,8.711934608932413227e+00,6.651934893766436874e-01
3.374765377932095411e+00,8.646905937606451431e+00,6.595061265717072629e-01
3.352623238562258745e+00,8.661509076446835209e+00,6.599032752047175876e-01
3.330447443380213812e+00,8.676112215287222540e+00,6.603047067225633615e-01
3.301362806727329957e+00,8.672655145684194267e+00,6.593373973981837555e-01
3.270784300494287589e+00,8.665025750698196916e+00,6.580604137659473718e-01
3.239799651024228844e+00,8.656025448800653166e+00,6.566872422157853384e-01
3.226315779194661726e+00,8.693874400488997622e+00,6.588725637696086768e-01
3.199424720352585183e+00,8.695781749235496960e+00,6.583374380934807757e-01
3.172578221624536177e+00,8.697689097981996298e+00,6.578085395193117302e-01
3.145775717509106340e+00,8.699596446728497412e+00,6.572858418522627977e-01
3.365975028859462981e+00,9.390473925499554397e+00,7.087711862597800838e-01
3.092533400628323381e+00,8.704066795353103458e+00,6.563083838878849274e-01
3.306697987228653712e+00,9.389877879016273354e+00,7.073212234942941601e-01
3.170283485540794643e+00,9.083390777313161024e+00,6.835645927488245288e-01
3.158616944855976882e+00,9.131849356403911600e+00,6.865448499595370180e-01
3.134995871715284821e+00,9.146154472002656632e+00,6.869594680305323164e-01
6.207476577303667753e+00,1.827615608430839345e+01,1.371398376492433346e+00
3.087769808048574482e+00,9.175122331090113548e+00,6.878291931668871761e-01
3.065910821955146748e+00,9.195030283631700385e+00,6.886771026942231089e-01
6.046418473767880997e+00,1.830411066437427081e+01,1.369646886472988045e+00
5.994947064803740844e+00,1.831990589618122200e+01,1.369570770068312404e+00
5.943481504241213464e+00,1.833570112798816609e+01,1.369505463128723566e+00
5.887466298188156699e+00,1.833731045349302846e+01,1.368392343899009767e+00
5.830139906460830801e+00,1.833450903502160401e+01,1.366963029247154182e+00
5.772855785579925403e+00,1.833146919795687424e+01,1.365529141179235184e+00
5.715763641960379005e+00,1.832866777948545334e+01,1.364126156704801973e+00
5.658731265966759238e+00,1.832568754706904812e+01,1.362722945342117020e+00
5.601868462385588998e+00,1.832288612859762367e+01,1.361346054982669695e+00
5.545064180143250532e+00,1.831990589618122556e+01,1.359968846568426315e+00
5.488354614868041104e+00,1.831686605911648513e+01,1.358600139734843282e+00
5.431827549186662552e+00,1.831406464064507134e+01,1.357261976593280739e+00
5.375357183705704145e+00,1.831108440822865902e+01,1.355923362708217894e+00
5.316156011734650022e+00,1.829832901348645180e+01,1.353874252826828606e+00
5.259983783280875791e+00,1.829552759501503090e+01,1.352574904574571413e+00
5.203578185738599871e+00,1.829153408357704080e+01,1.351200120058971388e+00
5.147619954171458012e+00,1.828873266510562345e+01,1.349926037372674914e+00
5.091715462229291056e+00,1.828575243268921824e+01,1.348651286451689968e+00
5.035963729537934697e+00,1.828295101421779734e+01,1.347402203462589654e+00
4.980524438505928408e+00,1.828092445617463824e+01,1.346222601215466774e+00
4.925726799073068207e+00,1.828092445617464179e+01,1.345204407240753408e+00
4.871011561276334056e+00,1.828092445617464534e+01,1.344198226697184584e+00
4.816440502814359981e+00,1.828116287476795065e+01,1.343221534949067042e+00
4.761886250892406025e+00,1.828116287476795421e+01,1.342239241200296584e+00
4.707411306877236079e+00,1.828116287476795421e+01,1.341268834938803778e+00
4.653014650180165468e+00,1.828116287476795776e+01,1.340310275281429098e+00
4.598695265582370517e+00,1.828116287476795421e+01,1.339363521912889432e+00
4.544496593905066106e+00,1.828134168871293852e+01,1.338441626682301822e+00
4.490328199093038819e+00,1.828134168871294207e+01,1.337518358165097121e+00
4.436234062866815542e+00,1.828134168871293852e+01,1.336606778470085688e+00
4.382213190678657888e+00,1.828134168871293497e+01,1.335706849511077321e+00
4.328306928691886490e+00,1.828152050265792283e+01,1.334831589911587901e+00
4.275362822531790563e+00,1.828551401409590582e+01,1.334246237883061958e+00
4.221543544235456302e+00,1.828551401409590227e+01,1.333380840603983986e+00
4.167793616590113714e+00,1.828551401409590582e+01,1.332526949774665237e+00
4.114112068937604505e+00,1.828551401409590227e+01,1.331684529998165223e+00
4.060550878668714780e+00,1.828575243268921824e+01,1.330870898952250636e+00
4.007002499157862552e+00,1.828575243268921824e+01,1.330051306513917675e+00
3.953519615817289612e+00,1.828575243268921824e+01,1.329243082241228002e+00
1.867671321352571079e+00,8.756638095178491454e+00,6.361631867399615281e-01
3.846784147922414299e+00,1.828593124663420255e+01,1.327673588501361523e+00
1.828260945175177232e+00,8.812845278551893813e+00,6.394947979741543165e-01
1.800704575740702529e+00,8.803546953412709541e+00,6.384526955633312850e-01
1.778651871289244735e+00,8.821130324669500311e+00,6.393651736722156809e-01
1.756537683681286710e+00,8.838773300574619185e+00,6.402859256819952716e-01
1.775564654385800800e+00,9.066880289726276132e+00,6.564483863349701576e-01
1.750610921282004462e+00,9.073734824284009903e+00,6.565881582982452391e-01
1.629660171576757355e+00,8.575499568909382475e+00,6.202034311092526897e-01
1.675035382692741770e+00,8.950472411541486650e+00,6.469816670869379394e-01
1.690616053396431839e+00,9.175360749683425965e+00,6.628937915038933815e-01
1.622592493503239419e+00,8.946300086158521125e+00,6.460149269654266169e-01
1.608875787172202143e+00,9.013951362010917734e+00,6.505730792664371487e-01
1.545956042941391662e+00,8.803487348764381437e+00,6.350689848106213509e-01
1.563208537293148792e+00,9.050012174249422614e+00,6.525354263239648844e-01
1.460686176612545184e+00,8.599579846833938390e+00,6.197612579568029245e-01
1.521128475196813268e+00,9.109438008632544381e+00,6.561974228323491642e-01
1.499502434500215919e+00,9.136915751511798689e+00,6.578725743091813349e-01
1.473658074384547323e+00,9.139061518851612220e+00,6.577282045370632657e-01
1.448202617868650011e+00,9.143591472124548147e+00,6.577606022097139959e-01
1.422512632552948242e+00,9.146631309189279690e+00,6.576909511367468042e-01
1.397055469251939241e+00,9.151161262462215618e+00,6.577335882412930212e-01
1.209198513481619663e+00,8.071661476591913242e+00,5.799003027858661286e-01
1.268813087249135885e+00,8.634090938215909006e+00,6.200504994528451830e-01
1.166047323658846002e+00,8.091807847726816050e+00,5.808707544375075749e-01
1.210235872150023262e+00,8.567870173923385124e+00,6.147999041397093078e-01
1.150220171835434568e+00,8.310497302442628964e+00,5.960989338244169211e-01
1.100600032981804866e+00,8.118868358067775404e+00,5.821309657948211536e-01
1.078872626883593311e+00,8.129060752931879463e+00,5.826434789394953073e-01
1.057112157182463985e+00,8.139312752444311627e+00,5.831644247815689353e-01
1.035310228874577243e+00,8.149564751956749120e+00,5.836895388825182884e-01
1.013473929195904288e+00,8.159876356117509388e+00,5.842230981856765260e-01
1.001361190373396326e+00,8.250654235521212243e+00,5.905200149419483902e-01
1.042389010677032379e+00,8.793950605031884749e+00,6.291943044047827449e-01
9.473091902675819798e-01,8.187354098996765472e+00,5.856016542196710306e-01
9.253245039367193892e-01,8.197784912454183726e+00,5.861606131345572512e-01
8.972608269978251672e-01,8.153379449449746019e+00,5.828040887831051897e-01
8.806592580514186475e-01,8.213401330316147053e+00,5.869163793949738750e-01
8.578832273862768698e-01,8.217394841754128265e+00,5.870282698029417601e-01
8.349649781663863735e-01,8.220077050928894735e+00,5.870510225181801989e-01
8.121742495881446589e-01,8.224070562366877724e+00,5.871719617187993734e-01
7.893737900593119639e-01,8.228064073804860712e+00,5.872974118732212645e-01
7.665632459888549466e-01,8.232057585242841924e+00,5.874273734821802151e-01
7.426819125207695382e-01,8.224308980960190141e+00,5.867241618895160382e-01
6.990242640583115286e-01,7.989883899085753249e+00,5.698587391134285474e-01
6.979514893002900511e-01,8.242667212645248043e+00,5.877465816311185920e-01
6.751058063959338718e-01,8.246720328731557359e+00,5.878988694523266112e-01
6.522432227803997007e-01,8.250713840169540347e+00,5.880514229951450123e-01
6.293684320245530595e-01,8.254707351607525112e+00,5.882084939468710250e-01
5.967376743149334084e-01,8.126020915867147920e+00,5.789176395227673133e-01
5.721723097923790968e-01,8.101165777514326649e+00,5.770308167128046506e-01
5.487539299621023714e-01,8.091032987298548917e+00,5.761976794704399829e-01
5.243159019050361858e-01,8.064210895550903757e+00,5.741810528412494286e-01
5.000476470782769800e-01,8.037567617748235804e+00,5.721823646524889506e-01
4.835040792228547102e-01,8.138299473422737407e+00,5.792549367319478337e-01
4.610115899375900050e-01,8.143783101068921226e+00,5.795513500832552012e-01
4.605002281663120312e-01,8.558214220894232227e+00,6.089504014033182422e-01
4.368030758268205416e-01,8.563459429947105406e+00,6.092344504115018156e-01
4.130862561825289769e-01,8.568764243648306689e+00,6.095274086810148484e-01
3.705053375264341087e-01,8.159161100337572137e+00,5.803149842435489925e-01
3.482733813639926068e-01,8.173168192694678424e+00,5.812397901154917612e-01
3.262532699840828276e-01,8.194327842851153676e+00,5.826775079506683053e-01
3.041243025274948941e-01,8.215606702304286912e+00,5.841279252256109666e-01
2.818831178864429909e-01,8.236945166405748253e+00,5.855868348120035760e-01
2.702189674000006758e-01,8.598506963164030736e+00,6.112352167878385423e-01
2.368611290846106554e-01,8.272827164699267044e+00,5.880345640498821913e-01
2.324341970553333858e-01,8.996308386105798860e+00,6.394111550445833458e-01
1.916258438057874547e-01,8.316219348682126977e+00,5.910335991491072472e-01
1.744986463734977400e-01,8.617818869222334754e+00,6.124312532092270889e-01
1.459269257044036872e-01,8.360147974499939849e+00,5.940884169059941211e-01
1.263607414527155304e-01,8.618355311057289470e+00,6.124096704820557457e-01
1.022513010717483323e-01,8.615136660047573613e+00,6.121582801093157222e-01
7.641410316870757280e-02,8.419394994938075527e+00,5.982321395161318556e-01
5.304250609885782092e-02,8.441865947357770850e+00,5.998159282722976826e-01
2.951023514893340999e-02,8.454025295616704128e+00,6.006716833126133359e-01
5.898112498355119818e-03,8.448422458673864099e+00,6.002700822188954399e-01
-1.767650896360453347e-02,8.439898993962945184e+00,5.996656493776608698e-01
-4.120234535053707292e-02,8.431077506010385747e+00,5.990447106848935110e-01
-6.467955457707343092e-02,8.422256018057824534e+00,5.984284265969451733e-01
-8.813971118219821044e-02,8.416414762521670312e+00,5.980285433411677287e-01
-1.115298722744266918e-01,8.407652879217437203e+00,5.974257682461389107e-01
-1.378639408081438755e-01,8.585155521938535372e+00,6.100636182693458531e-01
-1.617848604484197761e-01,8.581936870928817740e+00,6.098646263793189304e-01
-1.879519897891289981e-01,8.683205168438266952e+00,6.170960240327681978e-01
-2.046963592110399577e-01,8.375645183065246968e+00,5.952767246797652234e-01
-2.334888177558792355e-01,8.573473010866228705e+00,6.093807767823637978e-01
-2.509887571860818789e-01,8.358300230401768616e+00,5.941343410027866145e-01
-2.805252365981431573e-01,8.546352895876939471e+00,6.075550334793480278e-01
-3.035486492724965846e-01,8.521914990062414930e+00,6.058756555684983169e-01
-3.354481347310640516e-01,8.731961770770658049e+00,6.208733591363778670e-01
-3.431669018927190895e-01,8.326650162139545230e+00,5.921201006817140566e-01
-3.851101525650298396e-01,8.750379607104040502e+00,6.223261616480393332e-01
-4.375746663352814148e-01,9.348095020538274014e+00,6.649199365558747798e-01
-4.636691933883542727e-01,9.346664508978397734e+00,6.649076918414095205e-01
-4.598905656967769429e-01,8.775234745456861774e+00,6.243459616281488156e-01
-4.798530806081020006e-01,8.691669028500859540e+00,6.184933030753638761e-01
-8.587093491930016809e-01,1.480281441228475714e+01,1.053524815362244071e+00
-8.988985234828928972e-01,1.478153555283162213e+01,1.052184936821395356e+00
-9.419476618203732610e-01,1.480686752837106468e+01,1.054171256523138922e+00
-6.203019867958374789e-01,9.339094718640728487e+00,6.650152608136598031e-01
-1.267091059811880083e+00,1.830387224578096195e+01,1.303623141047814515e+00
-1.318460123340402745e+00,1.830387224578096195e+01,1.303880282351276731e+00
-1.369849856918306852e+00,1.830387224578096195e+01,1.304147697129803607e+00
-1.421261075013826813e+00,1.830387224578096195e+01,1.304425395877756744e+00
-1.472694593446806977e+00,1.830387224578096195e+01,1.304713389498539433e+00
-1.524151229440918742e+00,1.830387224578095839e+01,1.305011689305648703e+00
-1.575631801676066424e+00,1.830387224578096195e+01,1.305320307023758675e+00
-1.627137130340989390e+00,1.830387224578096195e+01,1.305639254789852099e+00
-1.678668037186065609e+00,1.830387224578096550e+01,1.305968545154388316e+00
-1.730225345576328122e+00,1.830387224578096550e+01,1.306308191082514059e+00
-1.781809880544695801e+00,1.830387224578095839e+01,1.306658205955313790e+00
-1.833422468845431919e+00,1.830387224578096195e+01,1.307018603571103554e+00
-1.885063939007832534e+00,1.830387224578096905e+01,1.307389398146763471e+00
-1.936735121390152914e+00,1.830387224578096550e+01,1.307770604319112184e+00
-1.988436848233791299e+00,1.830387224578096195e+01,1.308162237146328399e+00
-2.040169953717713813e+00,1.830387224578095839e+01,1.308564312109407934e+00
-1.883646402620503313e+00,1.648140051850083765e+01,1.178645226762589537e+00
-1.922845758299965402e+00,1.641786196338307846e+01,1.174480773488508767e+00
-1.965011760061509571e+00,1.638180115114457180e+01,1.172289076817114806e+00
-2.007041142798339450e+00,1.634603836214770922e+01,1.170126390113178427e+00
-2.048899551373951411e+00,1.631027557315085019e+01,1.167971347862264642e+00
-2.092134179627368251e+00,1.628655292311626468e+01,1.166686399164854837e+00
-2.134633396580314812e+00,1.625800229656710272e+01,1.165063652298257368e+00
-2.180090465657495091e+00,1.625245906427258547e+01,1.165098146352674613e+00
-2.242843723206962903e+00,1.637315847713700023e+01,1.174195201493420049e+00
-2.476725697148233873e+00,1.771253452971783915e+01,1.270739123996550868e+00
-2.525899723588991286e+00,1.770359383246861995e+01,1.270598789341983448e+00
-2.575626814717268953e+00,1.769852743736073108e+01,1.270746428365279845e+00
-2.625649045430496376e+00,1.769536839099934511e+01,1.271041104044813741e+00
-2.675406637353279216e+00,1.769030199589144914e+01,1.271208879677278691e+00
-2.725187151952789932e+00,1.768529520543189193e+01,1.271390999414357514e+00
-2.873670094262649854e+00,1.830905785018550347e+01,1.316804891918441633e+00
-2.919841871784032428e+00,1.827001680553059870e+01,1.314578323120589198e+00
-2.972314034233757507e+00,1.827079166595886406e+01,1.315226176985424322e+00
-3.023624522691195526e+00,1.826423515464276903e+01,1.315356888832509563e+00
-3.076150468301760199e+00,1.826483120112605363e+01,1.316013338212099759e+00
-3.128729175344930891e+00,1.826542724760933467e+01,1.316680672765753624e+00
-3.181392681715828452e+00,1.826620210803759647e+01,1.317371814936785901e+00
-3.234080112296926046e+00,1.826679815452088107e+01,1.318061005389030260e+00
-3.286865895865757725e+00,1.826763261959747453e+01,1.318778373225775180e+00
-3.339665828106815670e+00,1.826822866608075557e+01,1.319489530971818203e+00
-3.392556234202001253e+00,1.826900352650902448e+01,1.320224632274031640e+00
-3.445472131219301293e+00,1.826959957299229842e+01,1.320957868246855904e+00
-3.498412884153693447e+00,1.827001680553059870e+01,1.321689247744632700e+00
-3.551482132219932808e+00,1.827079166595886406e+01,1.322457607640857846e+00
-3.604578078595543467e+00,1.827138771244214865e+01,1.323224170767418828e+00
-3.657771685753861135e+00,1.827216257287041046e+01,1.324014860466618426e+00
-3.710992813410312063e+00,1.827275861935369150e+01,1.324803801134778247e+00
-3.764326786819997217e+00,1.827359308443028496e+01,1.325621269767388366e+00
-3.817677012010245896e+00,1.827418913091356956e+01,1.326432717278992701e+00
-3.871130730117822161e+00,1.827496399134182781e+01,1.327268448836405490e+00
-3.924613655580258431e+00,1.827556003782511240e+01,1.328102531597586289e+00
-3.978125174165450417e+00,1.827597727036340913e+01,1.328934975972183796e+00
-4.031704117944333809e+00,1.827639450290170586e+01,1.329778802610171340e+00
-4.085298152926622350e+00,1.827657331684669018e+01,1.330616687890914918e+00
-4.138960136373987631e+00,1.827675213079167449e+01,1.331466002787664360e+00
-4.192704706771573697e+00,1.827699054938498691e+01,1.332331127203371324e+00
-4.246547208479362290e+00,1.827734817727495553e+01,1.333216452777135519e+00
-4.300433573820892086e+00,1.827758659586826795e+01,1.334104630162566085e+00
-4.353142544126296087e+00,1.827257980540870719e+01,1.334621278161332913e+00
-4.407201912837883206e+00,1.827299703794700392e+01,1.335545462220056656e+00
-4.461278274430548585e+00,1.827317585189198468e+01,1.336463876482268498e+00
-4.515488336301474170e+00,1.827359308443028496e+01,1.337411422503353764e+00
-4.569715975539470953e+00,1.827377189837526927e+01,1.338353252231637036e+00
-4.624035486747872348e+00,1.827401031696858169e+01,1.339311210827000220e+00
-4.678463670294669363e+00,1.827436794485855032e+01,1.340289718968683541e+00
-4.732940858244774063e+00,1.827460636345186273e+01,1.341271337185098167e+00
-4.787482621021672990e+00,1.827478517739684705e+01,1.342260465543618109e+00
-4.842168414429445455e+00,1.827520240993514378e+01,1.343279041547932762e+00
-4.896873640309581610e+00,1.827538122388012809e+01,1.344292071440034153e+00
-4.951661794092591329e+00,1.827556003782511240e+01,1.345317109431686475e+00
-5.006599231310069342e+00,1.827597727036341269e+01,1.346371762811080952e+00
-5.061557089358650785e+00,1.827615608430838989e+01,1.347420960840380877e+00
-5.116617707005048921e+00,1.827639450290170586e+01,1.348486696442370292e+00
-5.171799549308513377e+00,1.827675213079167449e+01,1.349573426285059830e+00
-5.231417484798599915e+00,1.829230894400531326e+01,1.351795622381627204e+00
-5.293181503345095962e+00,1.831466068712834527e+01,1.354534467209323800e+00
-5.355483562876067971e+00,1.833808531392129382e+01,1.357367721878807387e+00
-5.411000716173736791e+00,1.833772768603132164e+01,1.358454411621231817e+00
-5.466518594286224442e+00,1.833707203489971604e+01,1.359531400214591956e+00
-5.522215072271181135e+00,1.833671440700974742e+01,1.360642908519894112e+00
-5.577930782268365029e+00,1.833611836052646993e+01,1.361749201087428363e+00
-5.633792844161124691e+00,1.833570112798816609e+01,1.362881294241220287e+00
-5.689693029622766574e+00,1.833510508150488860e+01,1.364012666395364892e+00
-5.745742887065049764e+00,1.833468784896659187e+01,1.365169961374573804e+00
-5.801832013864775206e+00,1.833409180248331438e+01,1.366326613025417469e+00
-5.858017028219499878e+00,1.833349575600002979e+01,1.367495975102562156e+00
-5.914356752740912881e+00,1.833307852346173661e+01,1.368691449127820814e+00
-2.739972312900667895e+00,8.412778878973655949e+00,6.286410686230984313e-01
-2.763766496230402492e+00,8.406043553712581939e+00,6.287120405545290058e-01
-2.787566760603750193e+00,8.399308228451504377e+00,6.287880502773764979e-01
-2.811373529336982369e+00,8.392572903190428590e+00,6.288691090039685294e-01
-2.834985708787364889e+00,8.385241531446071761e+00,6.289105234606736650e-01
-2.858804906832183246e+00,8.378506206184995975e+00,6.290016723627196438e-01
-2.882652409962751516e+00,8.371830485572248293e+00,6.291023839080673863e-01
-2.906508497964237048e+00,8.365154764959500611e+00,6.292081999251801783e-01
-2.929600429806646478e+00,8.356273672358613069e+00,6.291530880637020706e-01
-2.918679961553715785e+00,8.251250282004493286e+00,6.218569972954063330e-01
-2.940035968804219468e+00,8.238375677965622756e+00,6.215030365896309084e-01
-3.001254876448357756e+00,8.336306115168699904e+00,6.295207245534591989e-01
-2.810543262851713298e+00,7.738709911031121713e+00,5.849833254322798215e-01
-2.835946241348965557e+00,7.741213306260902982e+00,5.857689255073501577e-01
-2.861657517500992842e+00,7.744372352622292510e+00,5.866103706354234282e-01
-2.887128574075664034e+00,7.746696933907089466e+00,5.873948598665004184e-01
-2.912665700559559312e+00,7.749021515191884646e+00,5.881855691324965330e-01
-3.087571158322806042e+00,8.145213612628795730e+00,6.189103769933556043e-01
-3.108463542065012408e+00,8.131742962106644157e+00,6.185439870598304912e-01
-2.989311840700892731e+00,7.755041584673020516e+00,5.905227322419461800e-01
-3.015440496984011620e+00,7.758200631034410932e+00,5.914021901622835697e-01
-3.041339932956894199e+00,7.760584816967535993e+00,5.922290447014464387e-01
-3.148089475567431350e+00,7.967412946666058815e+00,6.086811012136728039e-01
-3.152423930607824776e+00,7.913649553874108733e+00,6.052439515263049463e-01
-3.119748458447088701e+00,7.768452630546846649e+00,5.948031271229219374e-01
-3.145910162121127396e+00,7.770777211831640940e+00,5.956514309121135886e-01
-3.169419772207643149e+00,7.766426072503689326e+00,5.959940117261575132e-01
-3.191315952022715674e+00,7.758081421737754724e+00,5.960352151259799003e-01
-3.138457701176634362e+00,7.569432709779304602e+00,5.822128433473514608e-01
-3.134413871524055040e+00,7.500410527015358930e+00,5.775749048184752876e-01
-8.324615918563880612e+00,1.976484178095113009e+01,1.523791099032882901e+00
-3.505155118872747444e+00,8.257627979375600447e+00,6.373825960635240984e-01
-3.281176668221327031e+00,7.670343379398785189e+00,5.927567227005192674e-01
-3.312481705871185511e+00,7.684112053162577283e+00,5.945332822529462158e-01
-3.427285875936444626e+00,7.889748089894537131e+00,6.111818321198482229e-01
-3.362791985019115248e+00,7.682502727657716690e+00,5.958526356742923635e-01
-3.384759580739942209e+00,7.674277286188440961e+00,5.959454479063764909e-01
-3.441487424483250290e+00,7.744253143325635413e+00,6.021233707050493988e-01
-3.427598881386701102e+00,7.655323008020102016e+00,5.959508488487421651e-01
-3.449637693971324470e+00,7.647216775847478942e+00,5.960673983522948305e-01
-3.471090833119304442e+00,7.637799241411641127e+00,5.960865563529029743e-01
-3.598782446149540792e+00,7.860422602917111590e+00,6.142429650896067406e-01
-3.513948111020353871e+00,7.618844963243302182e+00,5.961296666122621879e-01
-3.534438398448756402e+00,7.607341266115979828e+00,5.959995186798230371e-01
-3.556284471254008928e+00,7.598758196756730143e+00,5.961028020178711362e-01
-3.623238072920324182e+00,7.685840587964091419e+00,6.037255669473718944e-01
-3.618825664871509140e+00,7.621229149176427242e+00,5.994417836191874294e-01
-3.622107573399860225e+00,7.573485825865613918e+00,5.964798205971388878e-01
-3.786719065441763732e+00,7.861197463345376946e+00,6.199701107018606994e-01
-3.621274133886659641e+00,7.464349714776856715e+00,5.894680981587834268e-01
-3.614879001414917248e+00,7.398486578374301459e+00,5.850617185923665531e-01
-3.822259297236488607e+00,7.767856584063564718e+00,6.151126390036376623e-01
-3.844189848854561387e+00,7.757664189199459770e+00,6.151532101419492360e-01
-3.867373413415868377e+00,7.749975189565135203e+00,6.153974830302428867e-01
-3.889320696383535836e+00,7.739782794701027591e+00,6.154481796467342614e-01
-3.912599728728723747e+00,7.732213004363359232e+00,6.157126617225328058e-01
-4.031234003351687356e+00,7.911742205127609395e+00,6.309024500882166597e-01
-3.957883430327447716e+00,7.714450819161584150e+00,6.160488874402190174e-01
-4.094380888477228808e+00,7.925928111429697331e+00,6.338473030367326455e-01
-4.001027288389894743e+00,7.692456703928511885e+00,6.160673938656020532e-01
-4.371240746756446249e+00,8.347213765812739439e+00,6.694800613137126266e-01
-4.046627368438883821e+00,7.675111751265033533e+00,6.164787103006162949e-01
-4.241144308245771377e+00,7.989883899085752361e+00,6.427105608103972356e-01
-4.095232923936114489e+00,7.663250426247740776e+00,6.173535055594193688e-01
-4.459873276486243654e+00,8.289814489472776771e+00,6.688303919696156896e-01
-4.143124989979301454e+00,7.649779775725590092e+00,6.181228154762942184e-01
-4.168065539160713762e+00,7.644772985266028442e+00,6.186563412352064084e-01
-4.188768640915951025e+00,7.631957985875486905e+00,6.185634774194166408e-01
-4.210122233358226218e+00,7.620335079451505678e+00,6.185719263869489115e-01
-4.229255868214014669e+00,7.604718661589543238e+00,6.182605618160171845e-01
-4.248428404315406581e+00,7.589221453024235231e+00,6.179627642436265056e-01
-4.236776391540763242e+00,7.519066781942056465e+00,6.132113162414508656e-01
-4.288958775567598636e+00,7.562220547331604870e+00,6.177050572086659752e-01
-4.308169126275898542e+00,7.546902152711282064e+00,6.174341016543500871e-01
-4.178691018549456793e+00,7.272839979698656698e+00,5.959646374701751403e-01
-4.348447333529946057e+00,7.519603223777009404e+00,6.171780253941052674e-01
-4.367667448340951886e+00,7.504404038453342807e+00,6.169292014433495064e-01
-4.386934942696189665e+00,7.489324062426333306e+00,6.166942022041599358e-01
-4.803028112495681512e+00,8.147418984616935589e+00,6.719855984852136643e-01
-4.824896928320614009e+00,8.132517822534909513e+00,6.718652431953244797e-01
-4.446995814415674708e+00,7.448077645783283351e+00,6.163439843548021990e-01
-4.466338837423732500e+00,7.433236088349585380e+00,6.161455294813775740e-01
-4.485303441260136914e+00,7.417798484432605477e+00,6.159017305313975177e-01
-4.904144493659765125e+00,8.059561732981311621e+00,6.703219843264458522e-01
-5.000257250476114024e+00,8.166075239543632236e+00,6.803395180815494658e-01
-5.008307074587695418e+00,8.128166683206957899e+00,6.783438042906194676e-01
-4.961033541783850254e+00,8.001327991564750164e+00,6.689119402058840702e-01
-5.305807227521721181e+00,8.504272014157294279e+00,7.121940148310436092e-01
-5.278837415368565544e+00,8.408666158239016752e+00,7.054192291672536363e-01
-5.299544692553081582e+00,8.389533066125697047e+00,7.050528980786191502e-01
-5.320672721644797321e+00,8.371115229792312817e+00,7.047509964262537174e-01
-5.341772837949990915e+00,8.352697393458925035e+00,7.044535267418259306e-01
-5.365875348418849278e+00,8.338988324343464598e+00,7.045583381435736037e-01
-5.453158936714317839e+00,8.422852064541105577e+00,7.129277975455575733e-01
-5.184571012998634210e+00,7.959187505196779533e+00,6.749050848094115818e-01
-5.223122093236612251e+00,7.969618318654196898e+00,6.770237423730288695e-01
-5.511755175641397386e+00,8.359015486181705867e+00,7.114080252535829318e-01
-5.298729364575250678e+00,7.987320899207646541e+00,6.810309924020698791e-01
-5.337871737677061468e+00,7.997751712665063906e+00,6.831886629185143223e-01
-5.475673926403760383e+00,8.154809961009620523e+00,6.979084613242958479e-01
-5.304917229872573969e+00,7.853031626524426656e+00,6.733467443632848992e-01
-5.334565360244877930e+00,7.849574556921395718e+00,6.743250114228465097e-01
-5.417446278389368430e+00,7.923841948738214569e+00,6.820019812351626465e-01
-5.393404939831711431e+00,7.841587534045429742e+00,6.762160566167717546e-01
-5.457149957668073981e+00,7.887006276071445221e+00,6.814442187729671252e-01
-5.453355540853298322e+00,7.834673394839370530e+00,6.782357390116349194e-01
-5.656053509817812852e+00,8.077681546073051777e+00,7.006371775815034564e-01
-5.513696547733333730e+00,7.827759255633308655e+00,6.802924248103893179e-01
-5.675320698783317575e+00,8.009613037682356662e+00,6.974715549579098006e-01
-5.455310965740415519e+00,7.653713682515244088e+00,6.678040603064128167e-01
-5.757910248794735786e+00,8.030713083190507362e+00,7.020983281007916466e-01
-5.781615770155780432e+00,8.016407967591760553e+00,7.022564762317277109e-01
-5.647028807447618703e+00,7.783890234463825664e+00,6.832661511918497466e-01
-5.672617996950406472e+00,7.773399816358078418e+00,6.837331549041342216e-01
-5.699040518615979600e+00,7.763982281922237938e+00,6.843019704966601946e-01
-5.726267026191366405e+00,7.755578026507975231e+00,6.849679623146217589e-01
-5.891492852289125892e+00,7.932901855284084647e+00,7.020794060425470384e-01
-5.779670680985819153e+00,7.737100585526262009e+00,6.861763033358333486e-01
-6.026938591673624224e+00,8.021295548754665106e+00,7.128704097885391056e-01
-5.881153345751338080e+00,7.781923281068996445e+00,6.930537377921616171e-01
-5.978256211991319624e+00,7.864654532948406107e+00,7.019058014540424661e-01
-5.848424840555192183e+00,7.649422147835619690e+00,6.841516374891546404e-01
-6.005413562367603042e+00,7.809460628596580634e+00,6.999623944954553867e-01
-5.892070323272171173e+00,7.617950893518381505e+00,6.842694537966192980e-01
-6.071042012214312500e+00,7.804215419543708343e+00,7.025204356085504864e-01
-5.994641842154526223e+00,7.661760310039538169e+00,6.912011303368463810e-01
-6.012747454072684405e+00,7.640839078476373558e+00,6.908258124975281689e-01
-6.035438797860519955e+00,7.625759102449363169e+00,6.909835270827687781e-01
-6.050080495877428355e+00,7.600546336206574161e+00,6.902271533504784617e-01
-6.010963354052258012e+00,7.508278340594668698e+00,6.833697385150044878e-01
-6.032728069610863386e+00,7.492483108787721058e+00,6.834627642953611248e-01
-6.045910957093091120e+00,7.466078249578371739e+00,6.825915583666690711e-01
-6.352982889970173019e+00,7.800639140644021197e+00,7.147982171224989134e-01
-6.076748119622521038e+00,7.419050182047496556e+00,6.813842826644097572e-01
-6.089644612263763968e+00,7.392585718189818245e+00,6.805128978400194484e-01
-6.431862299476606815e+00,7.763743863328924633e+00,7.163298760489863470e-01
-6.455943359439979545e+00,7.748663887301916908e+00,7.165991251912203763e-01
-6.134394257136126072e+00,7.321060140196093080e+00,6.786357712340294057e-01
-6.148027847757263409e+00,7.295847373953305848e+00,6.778874608679166247e-01
-6.209723171291426702e+00,7.327437837567201129e+00,6.824312126783290688e-01
-6.785062849834722520e+00,7.961154458591606975e+00,7.432133245853668191e-01
-6.577395721284554853e+00,7.673979262946800439e+00,7.181160000629378537e-01
-6.601967629837264262e+00,7.659256914809756012e+00,7.184607355326682043e-01
-6.623992312018091688e+00,7.641554334256309922e+00,7.185325206907130502e-01
-6.648674722980170593e+00,7.626891590767597151e+00,7.188968005701172892e-01
-6.673500013957346155e+00,7.612348056575539701e+00,7.192797420771567252e-01
-6.793531181385315421e+00,7.705748540505680921e+00,7.298947306909024935e-01
-6.870023641241038703e+00,7.748783096598572229e+00,7.357853271173108167e-01
-7.721910568803501462e+00,8.660793820666897957e+00,8.244296270487503353e-01
-7.950128339828938628e+00,8.866787485288828208e+00,8.461484066018318817e-01
-7.564796578455657006e+00,8.389771484719009464e+00,8.026400633321737477e-01
-7.697313106091610457e+00,8.488953619536973250e+00,8.141819362521947046e-01
-7.275706780028544429e+00,7.979095457738368147e+00,7.672267463602785442e-01
-7.398657915864474965e+00,8.068562034878853595e+00,7.778129873112947790e-01
-7.441945582638975765e+00,8.070409778977024828e+00,7.799914525436277835e-01
-7.390399521227953628e+00,7.969737527950855771e+00,7.722532609025914985e-01
-7.486093155297285584e+00,8.027852060070756579e+00,7.799070872633746543e-01
-7.508496144016613805e+00,8.006930828507591968e+00,7.799085637603433430e-01
-7.548043022478077013e+00,8.004189014684499170e+00,7.816915533970885122e-01
-8.756965152773721783e+00,9.234369351528249226e+00,9.042160138411700077e-01
